1.128000000000000000e+03 4.900000000000000000e+02 2.736757516860961914e+00 -2.718878746032714844e+00 -8.780692219734191895e-01
6.500000000000000000e+02 4.910000000000000000e+02 3.474759340286254883e+00 -1.916974037885665894e-01 -8.947710394859313965e-01
9.900000000000000000e+02 4.960000000000000000e+02 3.053668260574340820e+00 -1.607165217399597168e+00 -8.701888322830200195e-01
7.100000000000000000e+02 4.990000000000000000e+02 3.146744012832641602e+00 -2.794928252696990967e-01 -8.863701224327087402e-01
1.087000000000000000e+03 5.010000000000000000e+02 2.975510835647583008e+00 -2.033654689788818359e+00 -8.778266906738281250e-01
9.340000000000000000e+02 5.020000000000000000e+02 2.660643100738525391e+00 -1.198083996772766113e+00 -7.796212434768676758e-01
1.027000000000000000e+03 5.020000000000000000e+02 3.049919843673706055e+00 -1.774404406547546387e+00 -8.844481706619262695e-01
9.560000000000000000e+02 5.030000000000000000e+02 2.622221231460571289e+00 -1.253078937530517578e+00 -7.948494553565979004e-01
8.740000000000000000e+02 5.110000000000000000e+02 2.796817541122436523e+00 -9.687849879264831543e-01 -8.376303315162658691e-01
1.240000000000000000e+03 5.330000000000000000e+02 2.601052522659301758e+00 -2.357651948928833008e+00 -8.837598562240600586e-01
1.261000000000000000e+03 5.350000000000000000e+02 2.208711624145507812e+00 -2.379305124282836914e+00 -8.812053203582763672e-01
1.700000000000000000e+01 6.070000000000000000e+02 1.062856554985046387e+00 1.696905136108398438e+00 -8.298653960227966309e-01
8.100000000000000000e+02 6.080000000000000000e+02 1.843039870262145996e+00 -5.252653956413269043e-01 -8.765632510185241699e-01
1.251000000000000000e+03 6.470000000000000000e+02 1.313074231147766113e+00 -1.611929774284362793e+00 -8.771528005599975586e-01
1.254000000000000000e+03 6.720000000000000000e+02 1.076368927955627441e+00 -1.538966894149780273e+00 -8.687945008277893066e-01
2.400000000000000000e+02 6.840000000000000000e+02 1.028239607810974121e+00 7.228917479515075684e-01 -8.539180755615234375e-01
4.290000000000000000e+02 7.030000000000000000e+02 1.203357934951782227e+00 3.315765261650085449e-01 -8.546676039695739746e-01
1.126000000000000000e+03 7.040000000000000000e+02 1.059951066970825195e+00 -1.106100559234619141e+00 -8.742460012435913086e-01
4.840000000000000000e+02 9.000000000000000000e+00 4.306141376495361328e+00 1.189728856086730957e+00 2.147352218627929688e+00
4.000000000000000000e+01 1.000000000000000000e+01 3.830486297607421875e+00 4.039360046386718750e+00 1.945893168449401855e+00
1.261000000000000000e+03 1.000000000000000000e+01 4.149641513824462891e+00 -4.133794784545898438e+00 2.382949829101562500e+00
1.055000000000000000e+03 1.200000000000000000e+01 3.443480968475341797e+00 -2.006209135055541992e+00 1.825037598609924316e+00
2.400000000000000000e+01 1.300000000000000000e+01 5.475475311279296875e+00 4.604638099670410156e+00 2.537708520889282227e+00
1.135000000000000000e+03 1.300000000000000000e+01 4.631107807159423828e+00 -4.338013648986816406e+00 2.265954971313476562e+00
6.250000000000000000e+02 2.400000000000000000e+01 5.548416137695312500e+00 2.826699018478393555e-01 2.464215755462646484e+00
5.960000000000000000e+02 2.900000000000000000e+01 5.594545841217041016e+00 6.389917731285095215e-01 2.437763214111328125e+00
6.880000000000000000e+02 3.600000000000000000e+01 5.508038997650146484e+00 -1.247591450810432434e-01 2.437293767929077148e+00
2.660000000000000000e+02 3.800000000000000000e+01 5.403209686279296875e+00 3.592764854431152344e+00 2.526352882385253906e+00
8.330000000000000000e+02 4.200000000000000000e+01 6.008306026458740234e+00 -1.537341594696044922e+00 2.463032484054565430e+00
1.042000000000000000e+03 4.400000000000000000e+01 5.624836921691894531e+00 -3.235113382339477539e+00 2.376479625701904297e+00
1.020000000000000000e+03 4.600000000000000000e+01 5.840802192687988281e+00 -3.170711994171142578e+00 2.380571126937866211e+00
6.940000000000000000e+02 5.200000000000000000e+01 5.978528022766113281e+00 -1.759831756353378296e-01 2.415336608886718750e+00
6.500000000000000000e+02 5.400000000000000000e+01 5.289306163787841797e+00 1.521561294794082642e-01 2.135036945343017578e+00
2.120000000000000000e+02 6.000000000000000000e+01 6.166563034057617188e+00 4.543576240539550781e+00 2.524222373962402344e+00
3.430000000000000000e+02 6.400000000000000000e+01 4.773363590240478516e+00 2.461660385131835938e+00 1.920115351676940918e+00
1.132000000000000000e+03 6.400000000000000000e+01 4.531826972961425781e+00 -4.254439353942871094e+00 1.917936682701110840e+00
1.116000000000000000e+03 6.900000000000000000e+01 3.497970104217529297e+00 -2.971433877944946289e+00 1.461947560310363770e+00
8.980000000000000000e+02 7.000000000000000000e+01 6.500290870666503906e+00 -2.144799709320068359e+00 2.448381900787353516e+00
6.790000000000000000e+02 7.300000000000000000e+01 6.760766029357910156e+00 -1.064401715993881226e-01 2.488392114639282227e+00
7.490000000000000000e+02 7.300000000000000000e+01 6.544251441955566406e+00 -7.509443759918212891e-01 2.430895805358886719e+00
8.030000000000000000e+02 7.300000000000000000e+01 6.548597335815429688e+00 -1.272428631782531738e+00 2.428048849105834961e+00
6.530000000000000000e+02 7.500000000000000000e+01 5.879864215850830078e+00 1.680493056774139404e-01 2.124536275863647461e+00
5.410000000000000000e+02 7.600000000000000000e+01 6.714001178741455078e+00 1.372796416282653809e+00 2.483921766281127930e+00
6.180000000000000000e+02 7.600000000000000000e+01 6.606916427612304688e+00 5.921817421913146973e-01 2.467631578445434570e+00
5.190000000000000000e+02 7.700000000000000000e+01 6.690965175628662109e+00 1.468168377876281738e+00 2.480928182601928711e+00
1.129000000000000000e+03 8.200000000000000000e+01 4.380503654479980469e+00 -4.097017288208007812e+00 1.651442170143127441e+00
3.450000000000000000e+02 8.400000000000000000e+01 4.765804290771484375e+00 2.116062164306640625e+00 1.932780146598815918e+00
1.068000000000000000e+03 8.500000000000000000e+01 5.095354557037353516e+00 -3.267030000686645508e+00 1.805288910865783691e+00
6.230000000000000000e+02 8.700000000000000000e+01 6.328196525573730469e+00 4.893972873687744141e-01 2.160503149032592773e+00
7.020000000000000000e+02 8.700000000000000000e+01 6.586491107940673828e+00 -4.773418903350830078e-01 2.456580638885498047e+00
3.820000000000000000e+02 8.800000000000000000e+01 5.177119255065917969e+00 2.082626104354858398e+00 1.930663824081420898e+00
5.020000000000000000e+02 8.800000000000000000e+01 5.204186916351318359e+00 1.029011249542236328e+00 1.727669119834899902e+00
8.730000000000000000e+02 8.800000000000000000e+01 6.464597225189208984e+00 -1.830425262451171875e+00 2.416952610015869141e+00
1.690000000000000000e+02 9.000000000000000000e+01 7.035558700561523438e+00 5.128777980804443359e+00 2.562240362167358398e+00
2.070000000000000000e+02 9.700000000000000000e+01 6.233632087707519531e+00 3.894993782043457031e+00 2.240146160125732422e+00
7.470000000000000000e+02 9.800000000000000000e+01 6.278412818908691406e+00 -7.088505625724792480e-01 2.123291492462158203e+00
1.084000000000000000e+03 1.000000000000000000e+02 5.571132183074951172e+00 -3.271856784820556641e+00 1.982808589935302734e+00
4.800000000000000000e+02 1.040000000000000000e+02 4.156600952148437500e+00 1.203131079673767090e+00 1.521219372749328613e+00
3.440000000000000000e+02 1.080000000000000000e+02 4.386855602264404297e+00 2.274391889572143555e+00 1.548810958862304688e+00
1.140000000000000000e+02 1.130000000000000000e+02 6.979462146759033203e+00 6.488642215728759766e+00 2.556841135025024414e+00
9.510000000000000000e+02 1.130000000000000000e+02 6.896242141723632812e+00 -3.004348278045654297e+00 2.112671613693237305e+00
8.690000000000000000e+02 1.150000000000000000e+02 6.854774475097656250e+00 -2.067170858383178711e+00 2.151259183883666992e+00
6.870000000000000000e+02 1.170000000000000000e+02 5.886370182037353516e+00 -1.374170184135437012e-01 1.845225811004638672e+00
6.680000000000000000e+02 1.180000000000000000e+02 6.051959514617919922e+00 9.577465802431106567e-02 1.860779523849487305e+00
7.470000000000000000e+02 1.180000000000000000e+02 6.997308254241943359e+00 -7.633211016654968262e-01 2.134201049804687500e+00
6.210000000000000000e+02 1.190000000000000000e+02 7.071953296661376953e+00 5.880417823791503906e-01 2.162693977355957031e+00
1.500000000000000000e+01 1.200000000000000000e+02 5.035580158233642578e+00 5.650205612182617188e+00 1.900511145591735840e+00
2.860000000000000000e+02 1.200000000000000000e+02 7.208406448364257812e+00 3.383089065551757812e+00 2.233030557632446289e+00
6.350000000000000000e+02 1.210000000000000000e+02 7.097845077514648438e+00 9.884269833564758301e-01 2.195135354995727539e+00
8.000000000000000000e+02 1.210000000000000000e+02 6.951662540435791016e+00 -1.283202290534973145e+00 2.153407573699951172e+00
8.530000000000000000e+02 1.210000000000000000e+02 7.144946098327636719e+00 -1.866768360137939453e+00 2.132360219955444336e+00
9.830000000000000000e+02 1.220000000000000000e+02 5.842840194702148438e+00 -2.830004453659057617e+00 1.846472501754760742e+00
7.290000000000000000e+02 1.230000000000000000e+02 6.158424854278564453e+00 -3.274345695972442627e-01 1.874002099037170410e+00
2.700000000000000000e+02 1.250000000000000000e+02 7.321716785430908203e+00 4.880414962768554688e+00 2.252201318740844727e+00
5.560000000000000000e+02 1.250000000000000000e+02 5.465400218963623047e+00 9.936849474906921387e-01 1.668552994728088379e+00
3.960000000000000000e+02 1.280000000000000000e+02 7.177063465118408203e+00 2.806704521179199219e+00 2.225253105163574219e+00
3.460000000000000000e+02 1.290000000000000000e+02 7.233242034912109375e+00 3.765869855880737305e+00 2.220471620559692383e+00
1.170000000000000000e+02 1.350000000000000000e+02 7.218254566192626953e+00 6.494717121124267578e+00 2.211367130279541016e+00
2.800000000000000000e+02 1.350000000000000000e+02 6.273182868957519531e+00 3.842881917953491211e+00 1.915186285972595215e+00
8.020000000000000000e+02 1.390000000000000000e+02 8.769012451171875000e+00 -1.609287619590759277e+00 2.391860961914062500e+00
4.580000000000000000e+02 1.400000000000000000e+02 8.589241027832031250e+00 3.076153039932250977e+00 2.453272342681884766e+00
6.720000000000000000e+02 1.400000000000000000e+02 8.058889389038085938e+00 -1.473867446184158325e-01 2.252653598785400391e+00
7.170000000000000000e+02 1.400000000000000000e+02 8.836327552795410156e+00 -4.797984063625335693e-01 2.458296537399291992e+00
8.900000000000000000e+02 1.400000000000000000e+02 6.737216472625732422e+00 -2.161453962326049805e+00 1.845737576484680176e+00
1.630000000000000000e+02 1.410000000000000000e+02 7.713189125061035156e+00 6.013741493225097656e+00 2.213772058486938477e+00
5.670000000000000000e+02 1.410000000000000000e+02 7.194795608520507812e+00 1.047217845916748047e+00 1.995256662368774414e+00
8.210000000000000000e+02 1.410000000000000000e+02 8.687544822692871094e+00 -1.903394222259521484e+00 2.389381170272827148e+00
6.440000000000000000e+02 1.420000000000000000e+02 7.545276641845703125e+00 7.963045686483383179e-02 2.098866224288940430e+00
9.240000000000000000e+02 1.420000000000000000e+02 8.534706115722656250e+00 -3.318755626678466797e+00 2.389512062072753906e+00
1.134000000000000000e+03 1.430000000000000000e+02 5.314183712005615234e+00 -4.131413936614990234e+00 1.622294187545776367e+00
4.790000000000000000e+02 1.490000000000000000e+02 6.925898075103759766e+00 2.029447317123413086e+00 1.874325513839721680e+00
1.620000000000000000e+02 1.500000000000000000e+02 6.645978927612304688e+00 5.556478500366210938e+00 1.901118040084838867e+00
5.830000000000000000e+02 1.580000000000000000e+02 6.813289165496826172e+00 9.374486804008483887e-01 1.684281587600708008e+00
6.770000000000000000e+02 1.580000000000000000e+02 8.069323539733886719e+00 -1.635864078998565674e-01 2.006334304809570312e+00
6.310000000000000000e+02 1.590000000000000000e+02 9.823181152343750000e+00 5.105810165405273438e-01 2.494496345520019531e+00
6.500000000000000000e+01 1.620000000000000000e+02 6.072465896606445312e+00 5.968288898468017578e+00 1.599419116973876953e+00
9.980000000000000000e+02 1.620000000000000000e+02 9.634863853454589844e+00 -4.720289230346679688e+00 2.347824335098266602e+00
1.144000000000000000e+03 1.640000000000000000e+02 2.320839405059814453e+00 -4.017719268798828125e+00 1.425650715827941895e+00
5.170000000000000000e+02 1.650000000000000000e+02 6.363675594329833984e+00 1.550209641456604004e+00 1.515868544578552246e+00
1.170000000000000000e+02 1.690000000000000000e+02 6.632575035095214844e+00 5.951309204101562500e+00 1.618346333503723145e+00
6.020000000000000000e+02 1.690000000000000000e+02 7.708143234252929688e+00 8.595767617225646973e-01 1.734576702117919922e+00
2.620000000000000000e+02 1.700000000000000000e+02 9.678874015808105469e+00 6.372609138488769531e+00 2.577883481979370117e+00
2.940000000000000000e+02 1.710000000000000000e+02 8.129231452941894531e+00 4.955393791198730469e+00 1.934023618698120117e+00
4.580000000000000000e+02 1.710000000000000000e+02 7.958689689636230469e+00 2.699424266815185547e+00 1.821249723434448242e+00
6.500000000000000000e+01 1.740000000000000000e+02 5.598484516143798828e+00 6.629202365875244141e+00 1.549790859222412109e+00
7.380000000000000000e+02 1.760000000000000000e+02 1.063410091400146484e+01 -1.064690113067626953e+00 2.410517454147338867e+00
7.800000000000000000e+02 1.760000000000000000e+02 7.902452945709228516e+00 -1.141024112701416016e+00 1.746071338653564453e+00
8.030000000000000000e+02 1.760000000000000000e+02 7.855293750762939453e+00 -1.499672770500183105e+00 1.733913302421569824e+00
1.060000000000000000e+03 1.800000000000000000e+02 6.345800876617431641e+00 -3.808817386627197266e+00 1.489301800727844238e+00
1.640000000000000000e+02 1.820000000000000000e+02 7.288962841033935547e+00 6.060570240020751953e+00 1.598418354988098145e+00
1.000000000000000000e+01 1.830000000000000000e+02 5.094154834747314453e+00 6.636867046356201172e+00 1.490012168884277344e+00
2.430000000000000000e+02 1.860000000000000000e+02 7.050909042358398438e+00 5.472377777099609375e+00 1.810572624206542969e+00
9.300000000000000000e+02 1.880000000000000000e+02 7.031261920928955078e+00 -2.702762603759765625e+00 1.469694733619689941e+00
5.550000000000000000e+02 1.940000000000000000e+02 7.915414810180664062e+00 1.458975195884704590e+00 1.480679035186767578e+00
5.990000000000000000e+02 1.940000000000000000e+02 7.851883411407470703e+00 9.040831923484802246e-01 1.504788994789123535e+00
5.150000000000000000e+02 2.020000000000000000e+02 8.001624107360839844e+00 1.955112934112548828e+00 1.463414311408996582e+00
1.100000000000000000e+01 2.050000000000000000e+02 4.152167797088623047e+00 5.322993755340576172e+00 9.588341116905212402e-01
2.520000000000000000e+02 2.060000000000000000e+02 8.525266647338867188e+00 5.459550857543945312e+00 1.540476202964782715e+00
1.198000000000000000e+03 2.060000000000000000e+02 7.086207389831542969e+00 -5.617957592010498047e+00 1.230946660041809082e+00
6.000000000000000000e+02 2.090000000000000000e+02 9.930113792419433594e+00 8.031924366950988770e-01 1.464654326438903809e+00
9.290000000000000000e+02 2.110000000000000000e+02 8.185843467712402344e+00 -3.176547527313232422e+00 1.383052825927734375e+00
6.900000000000000000e+01 2.120000000000000000e+02 6.664229393005371094e+00 6.611999511718750000e+00 1.228472590446472168e+00
9.760000000000000000e+02 2.120000000000000000e+02 8.446613311767578125e+00 -3.762111663818359375e+00 1.398471951484680176e+00
4.580000000000000000e+02 2.130000000000000000e+02 9.792255401611328125e+00 3.329728603363037109e+00 1.592653393745422363e+00
1.042000000000000000e+03 2.140000000000000000e+02 7.940908908843994141e+00 -4.357082366943359375e+00 1.372062683105468750e+00
6.220000000000000000e+02 2.150000000000000000e+02 7.958549022674560547e+00 6.390428543090820312e-01 1.448736071586608887e+00
7.870000000000000000e+02 2.180000000000000000e+02 9.438270568847656250e+00 -2.095862865447998047e+00 1.558341503143310547e+00
1.720000000000000000e+02 2.200000000000000000e+02 8.259206771850585938e+00 6.745135784149169922e+00 1.544776201248168945e+00
5.110000000000000000e+02 2.200000000000000000e+02 7.270528793334960938e+00 1.811900973320007324e+00 1.125811934471130371e+00
1.980000000000000000e+02 2.260000000000000000e+02 3.523952722549438477e+00 2.667979240417480469e+00 5.195884108543395996e-01
5.720000000000000000e+02 2.270000000000000000e+02 9.654334068298339844e+00 1.027658581733703613e+00 1.534170627593994141e+00
3.310000000000000000e+02 2.280000000000000000e+02 1.012455177307128906e+01 5.262337207794189453e+00 1.499460458755493164e+00
6.440000000000000000e+02 2.280000000000000000e+02 9.803321838378906250e+00 2.170712947845458984e-01 1.447251677513122559e+00
7.080000000000000000e+02 2.280000000000000000e+02 9.966357231140136719e+00 -4.184473156929016113e-01 1.445196151733398438e+00
7.830000000000000000e+02 2.280000000000000000e+02 9.769320487976074219e+00 -1.173802614212036133e+00 1.424679875373840332e+00
2.500000000000000000e+02 2.290000000000000000e+02 3.755113601684570312e+00 2.450075626373291016e+00 5.471643209457397461e-01
1.180000000000000000e+02 2.300000000000000000e+02 7.220514774322509766e+00 6.532150745391845703e+00 1.091835856437683105e+00
8.650000000000000000e+02 2.300000000000000000e+02 9.818447113037109375e+00 -2.748918533325195312e+00 1.371299266815185547e+00
9.280000000000000000e+02 2.310000000000000000e+02 6.913235187530517578e+00 -2.628895759582519531e+00 9.586157798767089844e-01
1.480000000000000000e+02 2.320000000000000000e+02 3.014450311660766602e+00 2.440718889236450195e+00 4.104399681091308594e-01
1.010000000000000000e+03 2.330000000000000000e+02 7.867739200592041016e+00 -4.687059879302978516e+00 1.344095468521118164e+00
6.480000000000000000e+02 2.480000000000000000e+02 1.156884479522705078e+01 6.062469482421875000e-01 1.344791889190673828e+00
4.560000000000000000e+02 2.490000000000000000e+02 6.684727668762207031e+00 2.300609827041625977e+00 7.549102306365966797e-01
5.570000000000000000e+02 2.490000000000000000e+02 1.157982826232910156e+01 2.209843397140502930e+00 1.391401052474975586e+00
5.140000000000000000e+02 2.500000000000000000e+02 7.288142681121826172e+00 1.817920207977294922e+00 7.991461157798767090e-01
6.100000000000000000e+02 2.510000000000000000e+02 1.155629158020019531e+01 1.186295509338378906e+00 1.390145182609558105e+00
9.280000000000000000e+02 2.510000000000000000e+02 6.986356735229492188e+00 -2.685520648956298828e+00 7.862620353698730469e-01
9.750000000000000000e+02 2.510000000000000000e+02 1.239105415344238281e+01 -5.435646533966064453e+00 1.430553793907165527e+00
6.580000000000000000e+02 2.520000000000000000e+02 1.469280338287353516e+01 1.856205761432647705e-01 1.740673899650573730e+00
7.280000000000000000e+02 2.540000000000000000e+02 1.127960109710693359e+01 -7.767500281333923340e-01 1.157050967216491699e+00
3.050000000000000000e+02 2.550000000000000000e+02 1.187092494964599609e+01 6.699697494506835938e+00 1.232007861137390137e+00
4.060000000000000000e+02 2.580000000000000000e+02 1.186702823638916016e+01 5.037383079528808594e+00 1.328158020973205566e+00
5.560000000000000000e+02 2.590000000000000000e+02 1.162633800506591797e+01 2.301962852478027344e+00 1.148296356201171875e+00
8.800000000000000000e+01 2.600000000000000000e+02 4.952169418334960938e+00 4.723744869232177734e+00 4.760587513446807861e-01
1.060000000000000000e+03 2.610000000000000000e+02 1.112546920776367188e+01 -6.824510574340820312e+00 1.275706171989440918e+00
1.234000000000000000e+03 2.610000000000000000e+02 6.147494316101074219e+00 -5.909233570098876953e+00 1.227640986442565918e+00
4.210000000000000000e+02 2.620000000000000000e+02 1.522838306427001953e+01 6.067236900329589844e+00 1.611638665199279785e+00
6.400000000000000000e+02 2.620000000000000000e+02 1.152728080749511719e+01 6.971322894096374512e-01 9.345833063125610352e-01
1.015000000000000000e+03 2.630000000000000000e+02 5.130867958068847656e+00 -2.664550542831420898e+00 4.890333712100982666e-01
3.320000000000000000e+02 2.640000000000000000e+02 1.175626277923583984e+01 6.174887657165527344e+00 1.165657401084899902e+00
4.690000000000000000e+02 2.670000000000000000e+02 6.935554027557373047e+00 2.193255901336669922e+00 6.082508563995361328e-01
1.193000000000000000e+03 2.670000000000000000e+02 3.711198091506958008e+00 -2.923658847808837891e+00 2.787737846374511719e-01
4.840000000000000000e+02 2.700000000000000000e+02 6.990869045257568359e+00 2.023835897445678711e+00 5.996890068054199219e-01
5.600000000000000000e+02 2.710000000000000000e+02 1.107586765289306641e+01 1.949842572212219238e+00 8.788405656814575195e-01
9.610000000000000000e+02 2.710000000000000000e+02 5.345116615295410156e+00 -2.418519735336303711e+00 4.283240139484405518e-01
5.120000000000000000e+02 2.720000000000000000e+02 7.085691928863525391e+00 1.786307692527770996e+00 5.932565331459045410e-01
6.090000000000000000e+02 2.720000000000000000e+02 1.105663967132568359e+01 1.192817807197570801e+00 8.716221451759338379e-01
9.030000000000000000e+02 2.730000000000000000e+02 6.133290290832519531e+00 -2.109458446502685547e+00 4.796303510665893555e-01
4.960000000000000000e+02 2.770000000000000000e+02 6.980168342590332031e+00 1.942057013511657715e+00 4.676638543605804443e-01
3.730000000000000000e+02 2.810000000000000000e+02 5.059673786163330078e+00 2.340256214141845703e+00 3.414705097675323486e-01
3.190000000000000000e+02 2.820000000000000000e+02 1.174558544158935547e+01 6.202610492706298828e+00 7.439261078834533691e-01
9.740000000000000000e+02 2.820000000000000000e+02 5.200511455535888672e+00 -2.376441955566406250e+00 2.532150447368621826e-01
1.012000000000000000e+03 2.870000000000000000e+02 2.365084409713745117e+00 -1.314721465110778809e+00 1.198118478059768677e-01
4.620000000000000000e+02 2.880000000000000000e+02 6.231046676635742188e+00 1.954715609550476074e+00 2.751927375793457031e-01
8.700000000000000000e+01 2.890000000000000000e+02 4.394932746887207031e+00 4.765166282653808594e+00 2.111955285072326660e-01
1.170000000000000000e+02 2.890000000000000000e+02 3.008412122726440430e+00 2.612996816635131836e+00 1.724742799997329712e-01
1.500000000000000000e+02 2.890000000000000000e+02 3.022482156753540039e+00 2.442903518676757812e+00 1.453291177749633789e-01
9.860000000000000000e+02 2.890000000000000000e+02 2.451291561126708984e+00 -1.245861172676086426e+00 9.958554059267044067e-02
1.063000000000000000e+03 2.920000000000000000e+02 2.272958755493164062e+00 -1.361987709999084473e+00 1.147419735789299011e-01
1.980000000000000000e+02 2.940000000000000000e+02 3.383309841156005859e+00 2.408100605010986328e+00 5.853100121021270752e-02
1.244000000000000000e+03 2.940000000000000000e+02 5.824081420898437500e+00 -5.249353885650634766e+00 2.930250167846679688e-01
9.170000000000000000e+02 2.960000000000000000e+02 3.123214721679687500e+00 -1.208205342292785645e+00 1.385157704353332520e-01
5.820000000000000000e+02 2.970000000000000000e+02 1.016656112670898438e+01 1.573562383651733398e+00 4.196963608264923096e-01
6.090000000000000000e+02 2.970000000000000000e+02 1.103385066986083984e+01 1.221114873886108398e+00 5.158075690269470215e-01
7.270000000000000000e+02 2.970000000000000000e+02 9.515409469604492188e+00 -7.213547229766845703e-01 3.759216070175170898e-01
5.440000000000000000e+02 2.980000000000000000e+02 1.016913318634033203e+01 2.048855543136596680e+00 4.298015832901000977e-01
8.620000000000000000e+02 2.980000000000000000e+02 6.853347301483154297e+00 -1.981383562088012695e+00 1.799918711185455322e-01
6.220000000000000000e+02 2.990000000000000000e+02 1.035289287567138672e+01 8.320443034172058105e-01 3.526755273342132568e-01
3.960000000000000000e+02 3.000000000000000000e+02 5.027957439422607422e+00 2.164120435714721680e+00 1.410289406776428223e-01
5.000000000000000000e+02 3.000000000000000000e+02 6.991425037384033203e+00 1.898419380187988281e+00 2.747955024242401123e-01
4.180000000000000000e+02 3.010000000000000000e+02 4.370198249816894531e+00 1.702728748321533203e+00 1.550787389278411865e-01
7.690000000000000000e+02 3.010000000000000000e+02 9.511027336120605469e+00 -1.140041232109069824e+00 3.473461568355560303e-01
4.560000000000000000e+02 3.030000000000000000e+02 4.500762939453125000e+00 1.430605292320251465e+00 5.979831516742706299e-02
5.130000000000000000e+02 3.040000000000000000e+02 7.299470424652099609e+00 1.802555084228515625e+00 1.450508832931518555e-01
3.680000000000000000e+02 3.060000000000000000e+02 4.451809883117675781e+00 2.104083538055419922e+00 1.191657185554504395e-01
4.460000000000000000e+02 3.060000000000000000e+02 4.404027938842773438e+00 1.570939779281616211e+00 6.193456053733825684e-02
1.166000000000000000e+03 3.060000000000000000e+02 9.229678153991699219e+00 -6.732308387756347656e+00 5.025628209114074707e-01
6.540000000000000000e+02 3.070000000000000000e+02 1.149580097198486328e+01 4.369789958000183105e-01 2.789551615715026855e-01
6.840000000000000000e+02 3.070000000000000000e+02 1.145868587493896484e+01 -5.056348815560340881e-02 2.457875162363052368e-01
7.740000000000000000e+02 3.090000000000000000e+02 4.191432952880859375e+00 -6.774990558624267578e-01 8.188905566930770874e-02
1.256000000000000000e+03 3.110000000000000000e+02 3.402962923049926758e+00 -6.155903339385986328e+00 1.131329834461212158e-01
2.490000000000000000e+02 3.120000000000000000e+02 3.464717864990234375e+00 2.297825336456298828e+00 4.361293464899063110e-02
4.930000000000000000e+02 3.150000000000000000e+02 6.384539127349853516e+00 1.808751940727233887e+00 5.049585923552513123e-02
1.127000000000000000e+03 3.150000000000000000e+02 2.221278190612792969e+00 -1.617996573448181152e+00 9.568776935338973999e-03
1.990000000000000000e+02 3.160000000000000000e+02 3.350717544555664062e+00 2.462117433547973633e+00 -9.605548344552516937e-03
7.220000000000000000e+02 3.170000000000000000e+02 9.531768798828125000e+00 -6.485173702239990234e-01 1.427521854639053345e-01
5.440000000000000000e+02 3.220000000000000000e+02 1.016511726379394531e+01 2.117672920227050781e+00 1.000451296567916870e-01
8.800000000000000000e+01 3.230000000000000000e+02 4.943672657012939453e+00 4.705609798431396484e+00 -5.611465498805046082e-02
3.680000000000000000e+02 3.250000000000000000e+02 4.488553524017333984e+00 2.113113880157470703e+00 -1.708839461207389832e-02
3.930000000000000000e+02 3.270000000000000000e+02 4.386998176574707031e+00 1.890831112861633301e+00 -6.998939067125320435e-02
4.600000000000000000e+02 3.290000000000000000e+02 4.525907039642333984e+00 1.436343789100646973e+00 -1.193119063973426819e-01
4.880000000000000000e+02 3.290000000000000000e+02 7.356042385101318359e+00 1.863534450531005859e+00 -1.371304392814636230e-01
3.330000000000000000e+02 3.300000000000000000e+02 4.331192016601562500e+00 2.234469890594482422e+00 -8.097188919782638550e-02
5.820000000000000000e+02 3.300000000000000000e+02 1.014790344238281250e+01 1.538584828376770020e+00 -2.024158649146556854e-02
9.420000000000000000e+02 3.300000000000000000e+02 3.061569929122924805e+00 -1.339299798011779785e+00 -5.799888819456100464e-02
6.210000000000000000e+02 3.310000000000000000e+02 1.013208866119384766e+01 8.460788726806640625e-01 -8.511234819889068604e-02
1.110000000000000000e+02 3.320000000000000000e+02 3.091163396835327148e+00 2.712691307067871094e+00 -1.025677099823951721e-01
1.660000000000000000e+02 3.340000000000000000e+02 3.078113317489624023e+00 2.479301691055297852e+00 -9.510593861341476440e-02
1.810000000000000000e+02 3.340000000000000000e+02 3.062053442001342773e+00 2.350963115692138672e+00 -1.031378656625747681e-01
8.330000000000000000e+02 3.340000000000000000e+02 4.071874141693115234e+00 -1.051328301429748535e+00 -3.864881396293640137e-02
1.980000000000000000e+02 3.350000000000000000e+02 3.081193685531616211e+00 2.282619237899780273e+00 -1.034539192914962769e-01
8.620000000000000000e+02 3.370000000000000000e+02 3.419265031814575195e+00 -1.071077704429626465e+00 -6.175831332802772522e-02
5.180000000000000000e+02 3.380000000000000000e+02 7.267080307006835938e+00 1.315457582473754883e+00 -1.792629212141036987e-01
9.790000000000000000e+02 3.420000000000000000e+02 2.465520143508911133e+00 -1.244900345802307129e+00 -8.099701255559921265e-02
3.920000000000000000e+02 3.510000000000000000e+02 4.410185813903808594e+00 1.780734539031982422e+00 -1.893054097890853882e-01
1.179000000000000000e+03 3.510000000000000000e+02 3.671788692474365234e+00 -2.879432201385498047e+00 -9.369930624961853027e-02
1.810000000000000000e+02 3.580000000000000000e+02 3.091018676757812500e+00 2.381749868392944336e+00 -2.400167435407638550e-01
7.620000000000000000e+02 3.580000000000000000e+02 9.490520477294921875e+00 -1.424993038177490234e+00 -5.008036494255065918e-01
1.660000000000000000e+02 3.590000000000000000e+02 3.151896953582763672e+00 2.611498832702636719e+00 -2.015620321035385132e-01
3.260000000000000000e+02 3.610000000000000000e+02 4.103881835937500000e+00 2.219960451126098633e+00 -2.508440017700195312e-01
1.990000000000000000e+02 3.620000000000000000e+02 3.222525596618652344e+00 2.373321294784545898e+00 -2.134784460067749023e-01
8.360000000000000000e+02 3.620000000000000000e+02 4.103384494781494141e+00 -1.087999939918518066e+00 -2.175016105175018311e-01
1.160000000000000000e+02 3.630000000000000000e+02 3.154793739318847656e+00 2.756380558013916016e+00 -2.790367603302001953e-01
6.050000000000000000e+02 3.630000000000000000e+02 1.010463809967041016e+01 1.138601779937744141e+00 -5.797454118728637695e-01
9.480000000000000000e+02 3.650000000000000000e+02 3.081362962722778320e+00 -1.364712834358215332e+00 -1.544180363416671753e-01
1.198000000000000000e+03 3.650000000000000000e+02 2.712173223495483398e+00 -2.274756193161010742e+00 -1.521808356046676636e-01
6.890000000000000000e+02 3.680000000000000000e+02 1.089640045166015625e+01 -1.160040125250816345e-01 -7.839395999908447266e-01
7.200000000000000000e+02 3.680000000000000000e+02 9.492032051086425781e+00 -6.789209842681884766e-01 -5.218728780746459961e-01
1.233000000000000000e+03 3.680000000000000000e+02 3.485662937164306641e+00 -3.107271909713745117e+00 -1.944537758827209473e-01
4.060000000000000000e+02 3.700000000000000000e+02 4.421976566314697266e+00 1.837316751480102539e+00 -3.411255478858947754e-01
4.480000000000000000e+02 3.700000000000000000e+02 4.494957447052001953e+00 1.527141213417053223e+00 -3.501819372177124023e-01
6.000000000000000000e+02 3.740000000000000000e+02 9.420189857482910156e+00 1.155989885330200195e+00 -7.677579522132873535e-01
6.210000000000000000e+02 3.740000000000000000e+02 1.016671657562255859e+01 8.663840293884277344e-01 -7.572641968727111816e-01
5.070000000000000000e+02 3.750000000000000000e+02 9.814010620117187500e+00 2.473982095718383789e+00 -7.793283462524414062e-01
3.830000000000000000e+02 3.790000000000000000e+02 4.938956260681152344e+00 2.221487045288085938e+00 -4.736518561840057373e-01
3.590000000000000000e+02 3.800000000000000000e+02 5.473589420318603516e+00 2.761482715606689453e+00 -5.016002655029296875e-01
7.230000000000000000e+02 3.810000000000000000e+02 9.477472305297851562e+00 -6.790317893028259277e-01 -8.060385584831237793e-01
7.710000000000000000e+02 3.810000000000000000e+02 4.440627098083496094e+00 -7.012202143669128418e-01 -4.089463055133819580e-01
8.190000000000000000e+02 3.820000000000000000e+02 4.117643356323242188e+00 -9.557017087936401367e-01 -4.000014662742614746e-01
1.140000000000000000e+03 3.820000000000000000e+02 2.240103721618652344e+00 -1.639846563339233398e+00 -1.795801222324371338e-01
8.710000000000000000e+02 3.860000000000000000e+02 3.360152006149291992e+00 -1.101132869720458984e+00 -3.284824192523956299e-01
9.780000000000000000e+02 3.890000000000000000e+02 2.577217102050781250e+00 -1.276540875434875488e+00 -2.680657207965850830e-01
1.235000000000000000e+03 3.900000000000000000e+02 3.512932777404785156e+00 -3.025238037109375000e+00 -3.113328814506530762e-01
8.430000000000000000e+02 3.910000000000000000e+02 5.023282051086425781e+00 -1.435556650161743164e+00 -5.312654972076416016e-01
9.220000000000000000e+02 3.910000000000000000e+02 3.120461225509643555e+00 -1.254544615745544434e+00 -3.402307629585266113e-01
5.530000000000000000e+02 3.930000000000000000e+02 7.268891334533691406e+00 1.333703279495239258e+00 -8.233032226562500000e-01
5.140000000000000000e+02 3.940000000000000000e+02 7.134252548217773438e+00 1.758032441139221191e+00 -7.936642765998840332e-01
7.750000000000000000e+02 3.940000000000000000e+02 4.283686161041259766e+00 -7.498097419738769531e-01 -4.859741330146789551e-01
1.240000000000000000e+02 3.990000000000000000e+02 3.151054382324218750e+00 2.793562650680541992e+00 -4.434758424758911133e-01
3.820000000000000000e+02 3.990000000000000000e+02 4.891179084777832031e+00 2.237025022506713867e+00 -6.388866305351257324e-01
4.710000000000000000e+02 3.990000000000000000e+02 5.992983341217041016e+00 1.855325698852539062e+00 -6.820007562637329102e-01
3.380000000000000000e+02 4.030000000000000000e+02 4.279251575469970703e+00 2.233561515808105469e+00 -5.391672253608703613e-01
1.148000000000000000e+03 4.040000000000000000e+02 2.720360517501831055e+00 -2.064302206039428711e+00 -3.179111778736114502e-01
8.250000000000000000e+02 4.060000000000000000e+02 4.224124431610107422e+00 -1.017600536346435547e+00 -5.145424008369445801e-01
9.200000000000000000e+01 4.070000000000000000e+02 4.955641269683837891e+00 4.728765964508056641e+00 -7.146720290184020996e-01
4.360000000000000000e+02 4.070000000000000000e+02 5.462164402008056641e+00 1.929036021232604980e+00 -6.935998797416687012e-01
9.640000000000000000e+02 4.110000000000000000e+02 3.232007265090942383e+00 -1.576910376548767090e+00 -4.393812417984008789e-01
1.660000000000000000e+02 4.200000000000000000e+02 3.141744136810302734e+00 2.549037694931030273e+00 -5.137065052986145020e-01
7.350000000000000000e+02 4.200000000000000000e+02 5.552734851837158203e+00 -5.359199047088623047e-01 -8.332735300064086914e-01
3.590000000000000000e+02 4.210000000000000000e+02 4.886785984039306641e+00 2.403359413146972656e+00 -7.760608792304992676e-01
1.004000000000000000e+03 4.250000000000000000e+02 2.407255649566650391e+00 -1.309429764747619629e+00 -3.782017529010772705e-01
1.096000000000000000e+03 4.250000000000000000e+02 2.274557590484619141e+00 -1.558543801307678223e+00 -3.757367432117462158e-01
5.640000000000000000e+02 4.260000000000000000e+02 5.130347251892089844e+00 8.988250494003295898e-01 -8.222652077674865723e-01
8.040000000000000000e+02 4.260000000000000000e+02 4.380732059478759766e+00 -9.192134737968444824e-01 -6.977188587188720703e-01
9.430000000000000000e+02 4.270000000000000000e+02 3.398612976074218750e+00 -1.497333645820617676e+00 -5.410237312316894531e-01
1.240000000000000000e+03 4.270000000000000000e+02 5.803428173065185547e+00 -5.170478343963623047e+00 -8.226358294486999512e-01
1.255000000000000000e+03 4.290000000000000000e+02 5.797648906707763672e+00 -5.400900840759277344e+00 -7.951523661613464355e-01
1.135000000000000000e+03 4.310000000000000000e+02 2.812038660049438477e+00 -2.087092876434326172e+00 -4.705015420913696289e-01
1.850000000000000000e+02 4.350000000000000000e+02 3.126983404159545898e+00 2.439216375350952148e+00 -6.175705194473266602e-01
3.270000000000000000e+02 4.400000000000000000e+02 4.081757545471191406e+00 2.193146705627441406e+00 -7.687072157859802246e-01
1.212000000000000000e+03 4.420000000000000000e+02 2.740930557250976562e+00 -2.323911666870117188e+00 -4.444308280944824219e-01
9.990000000000000000e+02 4.430000000000000000e+02 2.579642295837402344e+00 -1.391876816749572754e+00 -5.049015879631042480e-01
1.105000000000000000e+03 4.430000000000000000e+02 2.811916112899780273e+00 -2.040276288986206055e+00 -5.598529577255249023e-01
1.160000000000000000e+02 4.440000000000000000e+02 3.148113012313842773e+00 2.811338901519775391e+00 -7.517270445823669434e-01
1.143000000000000000e+03 4.460000000000000000e+02 2.844787597656250000e+00 -2.233765125274658203e+00 -5.283237695693969727e-01
7.530000000000000000e+02 4.500000000000000000e+02 4.450309276580810547e+00 -6.324574947357177734e-01 -8.091096282005310059e-01
1.096000000000000000e+03 4.520000000000000000e+02 2.524819135665893555e+00 -1.711558341979980469e+00 -5.346350669860839844e-01
1.077000000000000000e+03 4.540000000000000000e+02 2.579847097396850586e+00 -1.669525742530822754e+00 -5.489534139633178711e-01
1.033000000000000000e+03 4.550000000000000000e+02 2.620731830596923828e+00 -1.528594255447387695e+00 -5.544143319129943848e-01
1.860000000000000000e+02 4.560000000000000000e+02 3.120105981826782227e+00 2.432508230209350586e+00 -7.486419677734375000e-01
1.127000000000000000e+03 4.630000000000000000e+02 2.787639617919921875e+00 -2.065480232238769531e+00 -6.651123166084289551e-01
9.620000000000000000e+02 4.640000000000000000e+02 3.502097129821777344e+00 -1.674955010414123535e+00 -7.805602550506591797e-01
9.120000000000000000e+02 4.700000000000000000e+02 3.337398529052734375e+00 -1.328227639198303223e+00 -7.450684309005737305e-01
1.960000000000000000e+02 4.730000000000000000e+02 3.091815471649169922e+00 2.304317235946655273e+00 -7.441493868827819824e-01
8.600000000000000000e+02 4.730000000000000000e+02 3.469200372695922852e+00 -1.098458409309387207e+00 -8.262885808944702148e-01
9.070000000000000000e+02 4.780000000000000000e+02 3.419279813766479492e+00 -1.252218246459960938e+00 -8.133770823478698730e-01
1.267000000000000000e+03 4.780000000000000000e+02 3.508338451385498047e+00 -3.778591156005859375e+00 -8.649825453758239746e-01
1.050000000000000000e+03 4.810000000000000000e+02 2.569354772567749023e+00 -1.548984527587890625e+00 -6.542243957519531250e-01
1.142000000000000000e+03 4.850000000000000000e+02 2.766048192977905273e+00 -2.320564270019531250e+00 -7.347005605697631836e-01
7.740000000000000000e+02 4.870000000000000000e+02 3.564216613769531250e+00 -6.236023306846618652e-01 -8.529694676399230957e-01
1.254000000000000000e+03 4.880000000000000000e+02 3.605861425399780273e+00 -3.429623842239379883e+00 -8.797962665557861328e-01
1.209000000000000000e+03 4.890000000000000000e+02 2.836651802062988281e+00 -2.362162828445434570e+00 -6.707392334938049316e-01
9.440000000000000000e+02 4.920000000000000000e+02 3.293357610702514648e+00 -1.475450873374938965e+00 -8.729261755943298340e-01
1.271000000000000000e+03 4.930000000000000000e+02 2.734094858169555664e+00 -2.784162521362304688e+00 -7.193946242332458496e-01
3.590000000000000000e+02 4.960000000000000000e+02 3.161167860031127930e+00 1.321488142013549805e+00 -7.849894165992736816e-01
1.078000000000000000e+03 4.970000000000000000e+02 3.035465240478515625e+00 -1.954507231712341309e+00 -8.431926965713500977e-01
9.020000000000000000e+02 5.020000000000000000e+02 3.135381937026977539e+00 -1.140825629234313965e+00 -8.623965978622436523e-01
1.091000000000000000e+03 5.040000000000000000e+02 2.887048721313476562e+00 -1.960923671722412109e+00 -8.033024072647094727e-01
1.131000000000000000e+03 5.070000000000000000e+02 2.835884571075439453e+00 -2.114482879638671875e+00 -8.651599287986755371e-01
1.206000000000000000e+03 5.100000000000000000e+02 2.754560470581054688e+00 -2.332607030868530273e+00 -7.934717535972595215e-01
7.880000000000000000e+02 5.110000000000000000e+02 3.246958732604980469e+00 -7.500972747802734375e-01 -8.578562736511230469e-01
9.600000000000000000e+02 5.170000000000000000e+02 2.685306072235107422e+00 -1.282316565513610840e+00 -8.285422325134277344e-01
1.027000000000000000e+03 5.230000000000000000e+02 2.573904037475585938e+00 -1.473425626754760742e+00 -7.971101403236389160e-01
1.053000000000000000e+03 5.230000000000000000e+02 2.482809543609619141e+00 -1.552596449851989746e+00 -7.811089158058166504e-01
1.207000000000000000e+03 5.290000000000000000e+02 2.761160373687744141e+00 -2.374689340591430664e+00 -8.729826807975769043e-01
9.460000000000000000e+02 5.300000000000000000e+02 2.538963317871093750e+00 -1.213012456893920898e+00 -8.696381449699401855e-01
9.810000000000000000e+02 6.240000000000000000e+02 1.506484150886535645e+00 -9.808737039566040039e-01 -8.452394604682922363e-01
1.100000000000000000e+02 6.350000000000000000e+02 1.073803544044494629e+00 1.869944334030151367e+00 -7.853427529335021973e-01
9.100000000000000000e+01 6.390000000000000000e+02 1.964377284049987793e+00 -1.493341565132141113e+00 -8.712293505668640137e-01
1.181000000000000000e+03 6.430000000000000000e+02 1.590885162353515625e+00 -1.957316398620605469e+00 -8.702762126922607422e-01
5.240000000000000000e+02 6.700000000000000000e+02 1.571678519248962402e+00 1.804911494255065918e-01 -8.311629891395568848e-01
1.187000000000000000e+03 6.900000000000000000e+02 1.000800132751464844e+00 -1.176318049430847168e+00 -8.546480536460876465e-01
5.100000000000000000e+02 7.000000000000000000e+02 1.461803197860717773e+00 2.112764567136764526e-01 -8.396153450012207031e-01
8.160000000000000000e+02 7.020000000000000000e+02 1.529505014419555664e+00 -3.498964011669158936e-01 -8.549730181694030762e-01
5.240000000000000000e+02 7.030000000000000000e+02 1.451308965682983398e+00 1.732238531112670898e-01 -8.361425399780273438e-01
1.093000000000000000e+03 7.050000000000000000e+02 1.388761997222900391e+00 -1.031175732612609863e+00 -8.594004511833190918e-01
5.760000000000000000e+02 8.000000000000000000e+00 5.501688957214355469e+00 -1.491771787405014038e-01 2.408605813980102539e+00
8.010000000000000000e+02 1.100000000000000000e+01 3.677837848663330078e+00 -7.869259119033813477e-01 1.550212860107421875e+00
1.100000000000000000e+01 1.400000000000000000e+01 4.490783214569091797e+00 5.124461174011230469e+00 2.473908424377441406e+00
1.005000000000000000e+03 2.300000000000000000e+01 4.857265472412109375e+00 -2.687232971191406250e+00 2.381944417953491211e+00
8.000000000000000000e+02 2.600000000000000000e+01 5.190362453460693359e+00 -9.799543619155883789e-01 2.411484718322753906e+00
5.330000000000000000e+02 3.100000000000000000e+01 5.548296451568603516e+00 1.150402188301086426e+00 2.397627353668212891e+00
1.690000000000000000e+02 3.700000000000000000e+01 3.906092643737792969e+00 1.851347446441650391e+00 1.458011627197265625e+00
7.160000000000000000e+02 3.800000000000000000e+01 5.420514583587646484e+00 -5.496879220008850098e-01 2.424403429031372070e+00
4.140000000000000000e+02 4.500000000000000000e+01 3.897898197174072266e+00 1.437347650527954102e+00 1.618712186813354492e+00
1.146000000000000000e+03 4.700000000000000000e+01 5.769963741302490234e+00 -4.053694248199462891e+00 2.338264226913452148e+00
9.930000000000000000e+02 4.800000000000000000e+01 5.723793506622314453e+00 -2.663936853408813477e+00 2.350210666656494141e+00
7.680000000000000000e+02 5.300000000000000000e+01 3.821457862854003906e+00 -7.744024395942687988e-01 1.492238759994506836e+00
6.320000000000000000e+02 5.700000000000000000e+01 6.056553363800048828e+00 3.697933256626129150e-01 2.395535469055175781e+00
1.850000000000000000e+02 6.000000000000000000e+01 4.494751930236816406e+00 2.722536325454711914e+00 1.858300805091857910e+00
6.880000000000000000e+02 6.000000000000000000e+01 6.163855075836181641e+00 -1.375905424356460571e-01 2.408211231231689453e+00
1.207000000000000000e+03 6.600000000000000000e+01 4.929278373718261719e+00 -3.797460794448852539e+00 1.884957790374755859e+00
1.041000000000000000e+03 6.700000000000000000e+01 4.940278530120849609e+00 -3.814170360565185547e+00 2.143191814422607422e+00
1.600000000000000000e+01 6.800000000000000000e+01 6.295232295989990234e+00 6.968600273132324219e+00 2.515891551971435547e+00
1.200000000000000000e+01 7.700000000000000000e+01 3.407751083374023438e+00 4.452591896057128906e+00 1.872335910797119141e+00
4.540000000000000000e+02 7.700000000000000000e+01 6.103442668914794922e+00 1.868891477584838867e+00 2.220015048980712891e+00
5.290000000000000000e+02 7.700000000000000000e+01 6.708717823028564453e+00 9.332799911499023438e-01 2.391079902648925781e+00
5.560000000000000000e+02 7.900000000000000000e+01 6.473431587219238281e+00 1.192828059196472168e+00 2.364171028137207031e+00
5.920000000000000000e+02 7.900000000000000000e+01 5.681632995605468750e+00 6.675621867179870605e-01 2.073850154876708984e+00
6.170000000000000000e+02 7.900000000000000000e+01 6.000703811645507812e+00 5.070296525955200195e-01 2.168068647384643555e+00
8.290000000000000000e+02 8.100000000000000000e+01 6.666356563568115234e+00 -1.517809748649597168e+00 2.365093946456909180e+00
6.860000000000000000e+02 8.200000000000000000e+01 6.561055660247802734e+00 -1.361082047224044800e-01 2.395546197891235352e+00
9.230000000000000000e+02 8.200000000000000000e+01 5.059142112731933594e+00 -1.877538442611694336e+00 1.786596059799194336e+00
1.110000000000000000e+02 8.500000000000000000e+01 5.949127197265625000e+00 3.890045404434204102e+00 1.893411993980407715e+00
1.015000000000000000e+03 8.600000000000000000e+01 6.674908161163330078e+00 -3.380593776702880859e+00 2.340032577514648438e+00
7.570000000000000000e+02 8.800000000000000000e+01 6.994814872741699219e+00 -1.168860793113708496e+00 2.329800128936767578e+00
3.560000000000000000e+02 8.900000000000000000e+01 7.028810501098632812e+00 1.908731698989868164e+00 2.122272491455078125e+00
6.150000000000000000e+02 9.000000000000000000e+01 5.525664329528808594e+00 3.795832991600036621e-01 1.836977124214172363e+00
8.200000000000000000e+02 9.100000000000000000e+01 6.995066165924072266e+00 -1.414098024368286133e+00 2.347699403762817383e+00
6.280000000000000000e+02 9.200000000000000000e+01 6.990789890289306641e+00 -1.129357889294624329e-01 2.252713918685913086e+00
7.360000000000000000e+02 9.300000000000000000e+01 6.309303283691406250e+00 -5.022182464599609375e-01 2.094287633895874023e+00
1.039000000000000000e+03 1.010000000000000000e+02 4.300766944885253906e+00 -3.671679973602294922e+00 1.643111944198608398e+00
4.970000000000000000e+02 1.020000000000000000e+02 6.233053207397460938e+00 1.668386459350585938e+00 2.080990314483642578e+00
1.750000000000000000e+02 1.110000000000000000e+02 4.192089080810546875e+00 2.717485427856445312e+00 1.515385508537292480e+00
3.030000000000000000e+02 1.110000000000000000e+02 6.860233783721923828e+00 3.434038400650024414e+00 2.163201570510864258e+00
4.700000000000000000e+02 1.120000000000000000e+02 5.015377044677734375e+00 1.498459696769714355e+00 1.645404934883117676e+00
2.010000000000000000e+02 1.140000000000000000e+02 6.575388431549072266e+00 4.493559837341308594e+00 2.448666810989379883e+00
7.520000000000000000e+02 1.140000000000000000e+02 7.074401855468750000e+00 -1.181722998619079590e+00 2.094857454299926758e+00
3.600000000000000000e+02 1.200000000000000000e+02 4.267254352569580078e+00 1.701583266258239746e+00 1.343445181846618652e+00
1.960000000000000000e+02 1.210000000000000000e+02 5.868714332580566406e+00 4.395028591156005859e+00 1.835434794425964355e+00
6.070000000000000000e+02 1.220000000000000000e+02 5.933663368225097656e+00 4.273777008056640625e-01 1.779608845710754395e+00
5.600000000000000000e+02 1.230000000000000000e+02 6.161886215209960938e+00 1.095409989356994629e+00 1.898470044136047363e+00
9.120000000000000000e+02 1.230000000000000000e+02 5.605256080627441406e+00 -1.599759221076965332e+00 1.786482930183410645e+00
1.033000000000000000e+03 1.230000000000000000e+02 7.091027259826660156e+00 -4.098048210144042969e+00 1.920446634292602539e+00
6.850000000000000000e+02 1.240000000000000000e+02 7.144558429718017578e+00 -6.534390896558761597e-02 2.090776205062866211e+00
8.040000000000000000e+02 1.240000000000000000e+02 7.061048507690429688e+00 -1.377847671508789062e+00 2.055680751800537109e+00
1.820000000000000000e+02 1.280000000000000000e+02 8.721407890319824219e+00 5.401068687438964844e+00 2.392013788223266602e+00
5.740000000000000000e+02 1.280000000000000000e+02 6.001369953155517578e+00 7.277716398239135742e-01 1.837878942489624023e+00
7.360000000000000000e+02 1.290000000000000000e+02 7.103871822357177734e+00 -6.143704652786254883e-01 2.046236991882324219e+00
5.900000000000000000e+01 1.330000000000000000e+02 5.516684532165527344e+00 5.710502147674560547e+00 1.905983567237854004e+00
8.930000000000000000e+02 1.330000000000000000e+02 6.134602069854736328e+00 -2.245742797851562500e+00 1.847134351730346680e+00
