3.360000000000000000e+02 4.200000000000000000e+02 -3.605993747711181641e+00 -6.385142207145690918e-01 1.802337884902954102e+00
5.720000000000000000e+02 3.820000000000000000e+02 -5.405684947967529297e+00 -4.673783779144287109e+00 2.263000249862670898e+00
3.130000000000000000e+02 3.810000000000000000e+02 -5.790446281433105469e+00 -6.448410749435424805e-01 2.266227722167968750e+00
5.270000000000000000e+02 3.410000000000000000e+02 -6.526102542877197266e+00 -4.756046295166015625e+00 1.872096419334411621e+00
3.340000000000000000e+02 3.370000000000000000e+02 -6.432977199554443359e+00 -1.042621612548828125e+00 1.735680341720581055e+00
4.690000000000000000e+02 3.210000000000000000e+02 -9.191985130310058594e+00 -5.051203250885009766e+00 2.059333801269531250e+00
4.210000000000000000e+02 3.200000000000000000e+02 -5.828989028930664062e+00 -2.347959756851196289e+00 1.320430397987365723e+00
4.590000000000000000e+02 3.100000000000000000e+02 -7.339141368865966797e+00 -3.751554012298583984e+00 1.394485354423522949e+00
2.580000000000000000e+02 3.080000000000000000e+02 -9.969178199768066406e+00 3.251867592334747314e-01 1.970639705657958984e+00
3.720000000000000000e+02 3.060000000000000000e+02 -7.648933410644531250e+00 -1.951011538505554199e+00 1.546929359436035156e+00
1.820000000000000000e+02 3.020000000000000000e+02 -7.273259162902832031e+00 1.627820134162902832e+00 1.396904230117797852e+00
5.750000000000000000e+02 2.910000000000000000e+02 -7.542282104492187500e+00 -6.614773273468017578e+00 1.135653972625732422e+00
3.120000000000000000e+02 2.910000000000000000e+02 -8.355792999267578125e+00 -8.530016541481018066e-01 1.243531227111816406e+00
4.590000000000000000e+02 2.890000000000000000e+02 -7.469403266906738281e+00 -3.838833808898925781e+00 1.160248398780822754e+00
2.160000000000000000e+02 2.890000000000000000e+02 -7.324687957763671875e+00 1.011793732643127441e+00 1.086289525032043457e+00
1.810000000000000000e+02 2.880000000000000000e+02 -8.323411941528320312e+00 1.938050746917724609e+00 1.252023816108703613e+00
4.260000000000000000e+02 2.850000000000000000e+02 -6.873108386993408203e+00 -2.793867349624633789e+00 1.000958800315856934e+00
4.590000000000000000e+02 2.800000000000000000e+02 -1.086812400817871094e+01 -5.582878112792968750e+00 1.186708569526672363e+00
3.910000000000000000e+02 2.800000000000000000e+02 -9.034767150878906250e+00 -2.940696954727172852e+00 1.106353640556335449e+00
1.600000000000000000e+02 2.800000000000000000e+02 -1.202643489837646484e+01 3.307364463806152344e+00 1.492436885833740234e+00
1.270000000000000000e+02 2.800000000000000000e+02 -8.821186065673828125e+00 3.117499351501464844e+00 1.167365431785583496e+00
3.510000000000000000e+02 2.790000000000000000e+02 -9.460659027099609375e+00 -1.814668178558349609e+00 1.170484423637390137e+00
1.800000000000000000e+02 2.760000000000000000e+02 -7.395752906799316406e+00 1.675264954566955566e+00 9.060920476913452148e-01
4.730000000000000000e+02 2.670000000000000000e+02 -1.082546424865722656e+01 -5.877974510192871094e+00 9.257124066352844238e-01
4.240000000000000000e+02 2.670000000000000000e+02 -6.860267639160156250e+00 -2.788184881210327148e+00 6.703604459762573242e-01
4.050000000000000000e+02 2.670000000000000000e+02 -1.055413818359375000e+01 -3.747596025466918945e+00 8.917647600173950195e-01
3.710000000000000000e+02 2.660000000000000000e+02 -1.110103321075439453e+01 -2.943355321884155273e+00 9.297093749046325684e-01
3.140000000000000000e+02 2.660000000000000000e+02 -1.148444652557373047e+01 -1.321655154228210449e+00 1.065164923667907715e+00
1.800000000000000000e+02 2.640000000000000000e+02 -7.396552562713623047e+00 1.676260590553283691e+00 7.201017737388610840e-01
5.640000000000000000e+02 2.630000000000000000e+02 -1.046019840240478516e+01 -8.584659576416015625e+00 7.108112573623657227e-01
4.420000000000000000e+02 2.550000000000000000e+02 -6.515227317810058594e+00 -2.967192888259887695e+00 3.580227494239807129e-01
4.250000000000000000e+02 2.550000000000000000e+02 -6.613850593566894531e+00 -2.675968647003173828e+00 3.582042753696441650e-01
4.010000000000000000e+02 2.540000000000000000e+02 -1.055477333068847656e+01 -3.689174890518188477e+00 5.124468207359313965e-01
2.050000000000000000e+02 2.540000000000000000e+02 -7.085255622863769531e+00 1.223760962486267090e+00 4.594648480415344238e-01
3.720000000000000000e+02 2.530000000000000000e+02 -1.065151882171630859e+01 -2.869700908660888672e+00 5.536332726478576660e-01
1.920000000000000000e+02 2.530000000000000000e+02 -6.448925971984863281e+00 1.308202862739562988e+00 3.708107769489288330e-01
5.380000000000000000e+02 2.500000000000000000e+02 -3.824895620346069336e+00 -2.811155796051025391e+00 1.232483834028244019e-01
5.240000000000000000e+02 2.470000000000000000e+02 -3.775013685226440430e+00 -2.626445770263671875e+00 1.073613464832305908e-01
6.300000000000000000e+02 2.460000000000000000e+02 -2.476728439331054688e+00 -2.623149871826171875e+00 2.464729920029640198e-02
6.150000000000000000e+02 2.440000000000000000e+02 -2.566427230834960938e+00 -2.549603223800659180e+00 -1.420549210160970688e-02
1.800000000000000000e+02 2.430000000000000000e+02 -5.882645606994628906e+00 1.359458208084106445e+00 1.593529134988784790e-01
3.430000000000000000e+02 2.400000000000000000e+02 -1.115255451202392578e+01 -2.129813909530639648e+00 1.755017489194869995e-01
2.160000000000000000e+02 2.400000000000000000e+02 -7.311844825744628906e+00 1.030999779701232910e+00 1.753238290548324585e-01
4.100000000000000000e+02 2.380000000000000000e+02 -9.512760162353515625e+00 -3.520893573760986328e+00 1.349830478429794312e-01
3.010000000000000000e+02 2.380000000000000000e+02 -9.529266357421875000e+00 -7.540646195411682129e-01 1.081542000174522400e-01
3.620000000000000000e+02 2.370000000000000000e+02 -9.701580047607421875e+00 -2.293431520462036133e+00 1.079098135232925415e-01
2.060000000000000000e+02 2.360000000000000000e+02 -6.671964168548583984e+00 1.074498772621154785e+00 1.312171369791030884e-01
2.470000000000000000e+02 2.350000000000000000e+02 -9.826609611511230469e+00 6.022546887397766113e-01 1.657186150550842285e-01
1.080000000000000000e+02 2.330000000000000000e+02 -3.989900827407836914e+00 1.637866854667663574e+00 4.256623238325119019e-02
9.300000000000000000e+01 2.330000000000000000e+02 -3.608561038970947266e+00 1.611447572708129883e+00 5.847191810607910156e-02
3.450000000000000000e+02 2.320000000000000000e+02 -1.126250934600830078e+01 -2.156890392303466797e+00 -2.304344624280929565e-02
4.280000000000000000e+02 2.300000000000000000e+02 -1.104273796081542969e+01 -4.431066513061523438e+00 -2.669262290000915527e-01
2.340000000000000000e+02 2.240000000000000000e+02 -5.860864639282226562e+00 6.121077537536621094e-01 -9.514348208904266357e-02
4.880000000000000000e+02 2.220000000000000000e+02 -4.861266613006591797e+00 -2.803813934326171875e+00 -1.943151056766510010e-01
9.400000000000000000e+01 2.190000000000000000e+02 -3.971754550933837891e+00 1.750963449478149414e+00 -5.916973575949668884e-02
2.910000000000000000e+02 2.160000000000000000e+02 -9.541705131530761719e+00 -3.700727224349975586e-01 -4.383095502853393555e-01
2.800000000000000000e+02 2.160000000000000000e+02 -5.282978534698486328e+00 -6.055053696036338806e-02 -2.579592466354370117e-01
2.340000000000000000e+02 2.140000000000000000e+02 -9.829260826110839844e+00 9.424542784690856934e-01 -4.326977431774139404e-01
4.020000000000000000e+02 2.100000000000000000e+02 -5.750321865081787109e+00 -1.887721538543701172e+00 -3.583123981952667236e-01
3.840000000000000000e+02 2.030000000000000000e+02 -9.568802833557128906e+00 -2.803379297256469727e+00 -7.388917803764343262e-01
5.150000000000000000e+02 2.010000000000000000e+02 -1.050409984588623047e+01 -6.894993305206298828e+00 -1.146783709526062012e+00
2.820000000000000000e+02 2.010000000000000000e+02 -4.951698303222656250e+00 -4.413729906082153320e-02 -3.923911452293395996e-01
5.360000000000000000e+02 1.990000000000000000e+02 -3.435301065444946289e+00 -2.545167207717895508e+00 -3.984792232513427734e-01
4.320000000000000000e+02 1.990000000000000000e+02 -5.649776935577392578e+00 -2.347043037414550781e+00 -5.422127246856689453e-01
5.560000000000000000e+02 1.980000000000000000e+02 -3.192844629287719727e+00 -2.582158088684082031e+00 -3.962044715881347656e-01
3.730000000000000000e+02 1.970000000000000000e+02 -9.334695816040039062e+00 -2.492451906204223633e+00 -8.838050961494445801e-01
2.510000000000000000e+02 1.970000000000000000e+02 -4.984731197357177734e+00 3.566155135631561279e-01 -4.067647755146026611e-01
3.380000000000000000e+02 1.920000000000000000e+02 -1.041389369964599609e+01 -1.800310492515563965e+00 -1.109647870063781738e+00
3.210000000000000000e+02 1.920000000000000000e+02 -1.087218093872070312e+01 -1.299246311187744141e+00 -1.075682759284973145e+00
4.890000000000000000e+02 1.900000000000000000e+02 -4.765650749206542969e+00 -2.782026767730712891e+00 -6.529468894004821777e-01
3.630000000000000000e+02 1.900000000000000000e+02 -9.640036582946777344e+00 -2.278725862503051758e+00 -1.047853112220764160e+00
4.740000000000000000e+02 1.890000000000000000e+02 -6.350040435791015625e+00 -3.483338117599487305e+00 -8.631584644317626953e-01
3.780000000000000000e+02 1.880000000000000000e+02 -9.314917564392089844e+00 -2.560030460357666016e+00 -1.053338289260864258e+00
3.930000000000000000e+02 1.870000000000000000e+02 -6.085128784179687500e+00 -1.886811137199401855e+00 -8.051539063453674316e-01
2.320000000000000000e+02 1.870000000000000000e+02 -5.535928726196289062e+00 5.871822834014892578e-01 -5.728169083595275879e-01
2.140000000000000000e+02 1.850000000000000000e+02 -5.433427810668945312e+00 8.388177752494812012e-01 -6.610969305038452148e-01
1.260000000000000000e+02 1.840000000000000000e+02 -4.166530609130859375e+00 1.506450653076171875e+00 -4.499216675758361816e-01
1.510000000000000000e+02 1.820000000000000000e+02 -4.056300640106201172e+00 1.281035423278808594e+00 -4.768099486827850342e-01
2.310000000000000000e+02 1.760000000000000000e+02 -5.312512397766113281e+00 6.322220563888549805e-01 -7.672958970069885254e-01
4.760000000000000000e+02 1.740000000000000000e+02 -4.904147624969482422e+00 -2.700102806091308594e+00 -8.977031111717224121e-01
2.800000000000000000e+02 1.720000000000000000e+02 -4.962299346923828125e+00 -5.068613216280937195e-02 -7.541810274124145508e-01
1.470000000000000000e+02 1.720000000000000000e+02 -4.067647933959960938e+00 1.319848060607910156e+00 -5.716140866279602051e-01
4.320000000000000000e+02 1.710000000000000000e+02 -5.539907932281494141e+00 -2.310006141662597656e+00 -9.690248966217041016e-01
2.720000000000000000e+02 1.680000000000000000e+02 -4.679715633392333984e+00 9.300810843706130981e-02 -7.427406311035156250e-01
4.660000000000000000e+02 1.670000000000000000e+02 -4.799020290374755859e+00 -2.443583488464355469e+00 -9.783706665039062500e-01
2.120000000000000000e+02 1.650000000000000000e+02 -5.329263687133789062e+00 8.880426287651062012e-01 -8.663689494132995605e-01
1.250000000000000000e+02 1.610000000000000000e+02 -4.709542274475097656e+00 1.746511220932006836e+00 -7.183836698532104492e-01
9.100000000000000000e+01 1.610000000000000000e+02 -5.061061859130859375e+00 2.244357585906982422e+00 -7.878798246383666992e-01
2.850000000000000000e+02 1.550000000000000000e+02 -4.711803913116455078e+00 -5.585876479744911194e-02 -9.370583295822143555e-01
2.450000000000000000e+02 1.540000000000000000e+02 -4.852255344390869141e+00 4.369997978210449219e-01 -9.128820896148681641e-01
2.660000000000000000e+02 1.530000000000000000e+02 -4.785877227783203125e+00 1.061006411910057068e-01 -9.353884458541870117e-01
1.260000000000000000e+02 1.530000000000000000e+02 -4.139105319976806641e+00 1.535527229309082031e+00 -7.732827067375183105e-01
1.280000000000000000e+02 1.360000000000000000e+02 -3.860297441482543945e+00 1.430345892906188965e+00 -8.539637923240661621e-01
4.600000000000000000e+01 1.290000000000000000e+02 -3.055287837982177734e+00 1.717194795608520508e+00 -6.808444857597351074e-01
7.300000000000000000e+01 1.260000000000000000e+02 -3.690964221954345703e+00 1.806039452552795410e+00 -8.435584902763366699e-01
1.120000000000000000e+02 1.210000000000000000e+02 -3.208852291107177734e+00 1.300411224365234375e+00 -8.530331254005432129e-01
4.400000000000000000e+01 1.190000000000000000e+02 -3.240714550018310547e+00 1.834059715270996094e+00 -8.032405972480773926e-01
4.900000000000000000e+01 1.050000000000000000e+02 -3.052699327468872070e+00 1.666647672653198242e+00 -8.533913493156433105e-01