2.960000000000000000e+02 9.000000000000000000e+00 3.537784576416015625e+00 3.568834960460662842e-01 1.831905722618103027e+00
2.070000000000000000e+02 1.000000000000000000e+01 4.731991291046142578e+00 1.600086331367492676e+00 2.416413545608520508e+00
3.090000000000000000e+02 2.000000000000000000e+01 3.714733839035034180e+00 2.461508363485336304e-01 1.815589070320129395e+00
3.120000000000000000e+02 4.200000000000000000e+01 5.477555274963378906e+00 3.487782180309295654e-01 2.339871168136596680e+00
2.570000000000000000e+02 4.300000000000000000e+01 5.544660568237304688e+00 1.103014707565307617e+00 2.351485967636108398e+00
5.660000000000000000e+02 5.100000000000000000e+01 4.714775562286376953e+00 -2.634956836700439453e+00 1.873672485351562500e+00
3.160000000000000000e+02 5.900000000000000000e+01 5.903971672058105469e+00 3.435622453689575195e-01 2.314156532287597656e+00
2.710000000000000000e+02 7.200000000000000000e+01 6.483873367309570312e+00 1.109655976295471191e+00 2.294046401977539062e+00
2.930000000000000000e+02 7.200000000000000000e+01 5.675685405731201172e+00 6.372494697570800781e-01 1.992939233779907227e+00
3.500000000000000000e+02 7.300000000000000000e+01 6.591697692871093750e+00 -1.834081709384918213e-01 2.282727718353271484e+00
3.080000000000000000e+02 7.400000000000000000e+01 6.013936519622802734e+00 4.498769044876098633e-01 2.048104524612426758e+00
3.810000000000000000e+02 7.400000000000000000e+01 6.660202026367187500e+00 -7.062875628471374512e-01 2.272579431533813477e+00
3.080000000000000000e+02 8.400000000000000000e+01 6.009003639221191406e+00 4.458321928977966309e-01 1.933514356613159180e+00
4.220000000000000000e+02 8.500000000000000000e+01 7.012415409088134766e+00 -1.472144007682800293e+00 2.201528549194335938e+00
2.730000000000000000e+02 8.700000000000000000e+01 6.285356521606445312e+00 1.052831768989562988e+00 1.995974421501159668e+00
2.530000000000000000e+02 9.900000000000000000e+01 6.999161243438720703e+00 1.587051749229431152e+00 2.045175075531005859e+00
4.210000000000000000e+02 9.900000000000000000e+01 7.064984321594238281e+00 -1.430320501327514648e+00 1.963900923728942871e+00
2.730000000000000000e+02 1.000000000000000000e+02 6.997197628021240234e+00 1.165519952774047852e+00 2.010545015335083008e+00
4.880000000000000000e+02 1.000000000000000000e+02 6.053654670715332031e+00 -2.317591428756713867e+00 1.723925590515136719e+00
3.740000000000000000e+02 1.030000000000000000e+02 7.151569366455078125e+00 -6.855251789093017578e-01 1.938230991363525391e+00
4.730000000000000000e+02 1.030000000000000000e+02 7.077966213226318359e+00 -2.351924419403076172e+00 1.941321969032287598e+00
2.880000000000000000e+02 1.150000000000000000e+02 9.250660896301269531e+00 1.210994601249694824e+00 2.237359285354614258e+00
4.520000000000000000e+02 1.160000000000000000e+02 7.064561843872070312e+00 -2.049103736877441406e+00 1.693081378936767578e+00
4.700000000000000000e+02 1.270000000000000000e+02 7.755281448364257812e+00 -2.550354242324829102e+00 1.727675676345825195e+00
1.710000000000000000e+02 1.310000000000000000e+02 7.704812526702880859e+00 3.375512599945068359e+00 1.674543499946594238e+00
3.100000000000000000e+02 1.330000000000000000e+02 8.061213493347167969e+00 5.592663884162902832e-01 1.621240735054016113e+00
3.980000000000000000e+02 1.380000000000000000e+02 7.911277294158935547e+00 -1.209701538085937500e+00 1.542341351509094238e+00
4.720000000000000000e+02 1.410000000000000000e+02 7.743986129760742188e+00 -2.540722608566284180e+00 1.455825567245483398e+00
2.320000000000000000e+02 1.440000000000000000e+02 7.740104198455810547e+00 2.102180719375610352e+00 1.342813372611999512e+00
4.530000000000000000e+02 1.450000000000000000e+02 7.937393188476562500e+00 -2.295348644256591797e+00 1.339863777160644531e+00
3.760000000000000000e+02 1.550000000000000000e+02 8.349491119384765625e+00 -7.896679639816284180e-01 1.270597338676452637e+00
4.540000000000000000e+02 1.570000000000000000e+02 7.165843486785888672e+00 -2.055295705795288086e+00 1.096583366394042969e+00
2.430000000000000000e+02 1.640000000000000000e+02 9.625966072082519531e+00 2.361843824386596680e+00 1.266210556030273438e+00
4.530000000000000000e+02 1.690000000000000000e+02 7.126479148864746094e+00 -2.040468454360961914e+00 7.930521965026855469e-01
1.700000000000000000e+02 1.770000000000000000e+02 1.129669952392578125e+01 5.015672683715820312e+00 1.139411807060241699e+00
2.070000000000000000e+02 1.780000000000000000e+02 1.143641376495361328e+01 3.904006242752075195e+00 1.055563092231750488e+00
2.660000000000000000e+02 1.780000000000000000e+02 1.130594539642333984e+01 2.207629203796386719e+00 1.060379505157470703e+00
4.530000000000000000e+02 1.800000000000000000e+02 7.171921730041503906e+00 -2.049660682678222656e+00 6.512716412544250488e-01
2.850000000000000000e+02 1.840000000000000000e+02 1.141506767272949219e+01 1.693330407142639160e+00 7.646480798721313477e-01
9.100000000000000000e+01 1.870000000000000000e+02 4.041915893554687500e+00 2.610534191131591797e+00 3.010792732238769531e-01
1.880000000000000000e+02 1.910000000000000000e+02 6.723989486694335938e+00 2.619375705718994141e+00 4.294693470001220703e-01
2.060000000000000000e+02 1.910000000000000000e+02 6.813040733337402344e+00 2.402172565460205078e+00 4.149760901927947998e-01
2.660000000000000000e+02 1.910000000000000000e+02 1.130101871490478516e+01 2.180370092391967773e+00 6.645279526710510254e-01
4.470000000000000000e+02 1.910000000000000000e+02 7.156379222869873047e+00 -2.050395965576171875e+00 3.958430290222167969e-01
4.170000000000000000e+02 1.920000000000000000e+02 1.154516696929931641e+01 -2.226596117019653320e+00 6.729395985603332520e-01
4.250000000000000000e+02 1.920000000000000000e+02 6.251597881317138672e+00 -1.367791891098022461e+00 3.271115720272064209e-01
2.950000000000000000e+02 1.930000000000000000e+02 1.129402542114257812e+01 1.375786304473876953e+00 4.945088624954223633e-01
4.380000000000000000e+02 1.930000000000000000e+02 6.271928310394287109e+00 -1.596721768379211426e+00 3.283747732639312744e-01
1.510000000000000000e+02 1.960000000000000000e+02 5.443340301513671875e+00 2.710898399353027344e+00 2.689724862575531006e-01
1.080000000000000000e+02 1.980000000000000000e+02 4.192527770996093750e+00 2.510620355606079102e+00 1.700920164585113525e-01
4.500000000000000000e+02 2.040000000000000000e+02 1.157096958160400391e+01 -3.309692621231079102e+00 3.745137751102447510e-01
2.260000000000000000e+02 2.080000000000000000e+02 9.952182769775390625e+00 2.948082685470581055e+00 2.146340757608413696e-01
2.740000000000000000e+02 2.080000000000000000e+02 9.981502532958984375e+00 1.763859272003173828e+00 1.757826358079910278e-01
5.000000000000000000e+02 2.080000000000000000e+02 5.182488918304443359e+00 -2.097876548767089844e+00 8.386744558811187744e-02
6.020000000000000000e+02 2.080000000000000000e+02 3.680753231048583984e+00 -2.462538480758666992e+00 7.745761424303054810e-02
4.160000000000000000e+02 2.100000000000000000e+02 7.134989261627197266e+00 -1.388106942176818848e+00 9.642083942890167236e-02
2.850000000000000000e+02 2.130000000000000000e+02 1.139432048797607422e+01 1.454596996307373047e+00 4.964090511202812195e-02
5.150000000000000000e+02 2.130000000000000000e+02 8.499468803405761719e+00 -3.796030759811401367e+00 -1.201794017106294632e-02
1.610000000000000000e+02 2.150000000000000000e+02 5.161902904510498047e+00 2.381429195404052734e+00 -1.127514895051717758e-02
2.250000000000000000e+02 2.160000000000000000e+02 6.626679420471191406e+00 1.989882826805114746e+00 -3.899685665965080261e-02
5.800000000000000000e+02 2.160000000000000000e+02 3.194637537002563477e+00 -1.991024971008300781e+00 -8.350595831871032715e-03
6.250000000000000000e+02 2.160000000000000000e+02 3.198030948638916016e+00 -2.350382804870605469e+00 -4.411393404006958008e-02
5.900000000000000000e+01 2.170000000000000000e+02 3.411882400512695312e+00 2.538343429565429688e+00 -5.290978401899337769e-02
2.390000000000000000e+02 2.170000000000000000e+02 6.917272090911865234e+00 1.827539563179016113e+00 -5.191269144415855408e-02
5.950000000000000000e+02 2.170000000000000000e+02 3.584814071655273438e+00 -2.397081136703491211e+00 -4.927387461066246033e-02
4.810000000000000000e+02 2.190000000000000000e+02 4.695946216583251953e+00 -1.681404232978820801e+00 -6.523509323596954346e-02
4.400000000000000000e+01 2.210000000000000000e+02 3.608401536941528320e+00 2.863538265228271484e+00 -5.979987606406211853e-02
3.680000000000000000e+02 2.220000000000000000e+02 5.444637775421142578e+00 -4.261974990367889404e-01 -9.507028758525848389e-02
6.700000000000000000e+01 2.240000000000000000e+02 3.555675983428955078e+00 2.541339874267578125e+00 -1.300290673971176147e-01
1.070000000000000000e+02 2.240000000000000000e+02 4.141376495361328125e+00 2.575021505355834961e+00 -1.298044621944427490e-01
2.510000000000000000e+02 2.240000000000000000e+02 7.466473579406738281e+00 1.662703394889831543e+00 -1.462829262018203735e-01
1.500000000000000000e+02 2.250000000000000000e+02 5.083931446075439453e+00 2.568919181823730469e+00 -1.445941627025604248e-01
2.030000000000000000e+02 2.260000000000000000e+02 6.539278030395507812e+00 2.321916341781616211e+00 -2.280625253915786743e-01
5.310000000000000000e+02 2.260000000000000000e+02 3.399984359741210938e+00 -1.709807753562927246e+00 -1.283626407384872437e-01
1.580000000000000000e+02 2.270000000000000000e+02 5.162119865417480469e+00 2.462253808975219727e+00 -2.282293438911437988e-01
3.950000000000000000e+02 2.270000000000000000e+02 5.506334781646728516e+00 -8.066240549087524414e-01 -1.544768661260604858e-01
4.740000000000000000e+02 2.270000000000000000e+02 2.833767175674438477e+00 -1.013297677040100098e+00 -1.274872720241546631e-01
3.600000000000000000e+01 2.300000000000000000e+02 3.130141735076904297e+00 2.551688909530639648e+00 -1.626685708761215210e-01
2.370000000000000000e+02 2.300000000000000000e+02 6.979043960571289062e+00 1.867533206939697266e+00 -2.846879661083221436e-01
2.190000000000000000e+02 2.310000000000000000e+02 6.621059417724609375e+00 2.081506013870239258e+00 -3.597194254398345947e-01
3.260000000000000000e+02 2.310000000000000000e+02 1.138892555236816406e+01 4.732637405395507812e-01 -5.189070701599121094e-01
4.140000000000000000e+02 2.310000000000000000e+02 6.730950355529785156e+00 -1.344954967498779297e+00 -3.967484831809997559e-01
5.730000000000000000e+02 2.310000000000000000e+02 2.930063486099243164e+00 -1.778008341789245605e+00 -1.470061987638473511e-01
5.000000000000000000e+02 2.320000000000000000e+02 3.767933607101440430e+00 -1.563882470130920410e+00 -1.544016897678375244e-01
2.610000000000000000e+02 2.330000000000000000e+02 7.470314979553222656e+00 1.586241126060485840e+00 -3.722813725471496582e-01
3.690000000000000000e+02 2.350000000000000000e+02 5.440773010253906250e+00 -4.212594330310821533e-01 -2.790734171867370605e-01
4.870000000000000000e+02 2.370000000000000000e+02 3.838504552841186523e+00 -1.520890474319458008e+00 -2.450557947158813477e-01
6.210000000000000000e+02 2.370000000000000000e+02 3.029451608657836914e+00 -2.183651685714721680e+00 -1.499604284763336182e-01
3.760000000000000000e+02 2.420000000000000000e+02 5.111083984375000000e+00 -5.296788215637207031e-01 -4.439210295677185059e-01
2.050000000000000000e+02 2.430000000000000000e+02 6.710073471069335938e+00 2.360311746597290039e+00 -5.616225004196166992e-01
2.230000000000000000e+02 2.440000000000000000e+02 6.706504344940185547e+00 2.088857650756835938e+00 -5.243107080459594727e-01
3.650000000000000000e+02 2.440000000000000000e+02 5.218600273132324219e+00 -3.752360343933105469e-01 -4.265593588352203369e-01
1.950000000000000000e+02 2.450000000000000000e+02 6.536077499389648438e+00 2.490319967269897461e+00 -5.034192204475402832e-01
3.180000000000000000e+02 2.450000000000000000e+02 1.098777866363525391e+01 6.425409913063049316e-01 -9.364842772483825684e-01
3.900000000000000000e+02 2.460000000000000000e+02 4.316288471221923828e+00 -5.676636695861816406e-01 -3.337990343570709229e-01
8.800000000000000000e+01 2.470000000000000000e+02 3.846043348312377930e+00 2.562082529067993164e+00 -3.459550440311431885e-01
5.930000000000000000e+02 2.470000000000000000e+02 2.900458574295043945e+00 -1.938455581665039062e+00 -2.475584149360656738e-01
3.100000000000000000e+01 2.480000000000000000e+02 3.123699903488159180e+00 2.578177452087402344e+00 -3.050217032432556152e-01
6.700000000000000000e+01 2.480000000000000000e+02 3.550711870193481445e+00 2.551081418991088867e+00 -3.437805175781250000e-01
4.980000000000000000e+02 2.480000000000000000e+02 5.266504764556884766e+00 -2.181595325469970703e+00 -4.600308835506439209e-01
2.330000000000000000e+02 2.490000000000000000e+02 7.083312988281250000e+00 1.991235852241516113e+00 -6.592546701431274414e-01
2.610000000000000000e+02 2.540000000000000000e+02 9.907449722290039062e+00 2.016443967819213867e+00 -1.028734922409057617e+00
1.910000000000000000e+02 2.550000000000000000e+02 5.963908195495605469e+00 2.356595754623413086e+00 -6.315274834632873535e-01
1.380000000000000000e+02 2.560000000000000000e+02 5.059040546417236328e+00 2.671247959136962891e+00 -5.789697170257568359e-01
2.230000000000000000e+02 2.570000000000000000e+02 6.853071212768554688e+00 2.162950038909912109e+00 -8.124101161956787109e-01
1.230000000000000000e+02 2.580000000000000000e+02 4.671896934509277344e+00 2.662325382232666016e+00 -5.518300533294677734e-01
2.330000000000000000e+02 2.580000000000000000e+02 6.958685398101806641e+00 1.944693446159362793e+00 -8.779083490371704102e-01
1.080000000000000000e+02 2.590000000000000000e+02 4.648455619812011719e+00 2.874167680740356445e+00 -5.722743868827819824e-01
3.670000000000000000e+02 2.590000000000000000e+02 6.850610733032226562e+00 -4.938741922378540039e-01 -7.470651268959045410e-01
4.160000000000000000e+02 2.590000000000000000e+02 4.153421878814697266e+00 -8.495490550994873047e-01 -4.595961272716522217e-01
5.000000000000000000e+01 2.600000000000000000e+02 3.346385002136230469e+00 2.583983898162841797e+00 -4.511606395244598389e-01
2.060000000000000000e+02 2.620000000000000000e+02 6.456610202789306641e+00 2.288452386856079102e+00 -8.486678004264831543e-01
3.870000000000000000e+02 2.620000000000000000e+02 4.315068721771240234e+00 -5.598798394203186035e-01 -4.993361830711364746e-01
5.050000000000000000e+02 2.660000000000000000e+02 2.931864738464355469e+00 -1.301147341728210449e+00 -3.818301558494567871e-01
3.450000000000000000e+02 2.680000000000000000e+02 5.806298255920410156e+00 -1.028879955410957336e-01 -7.943391799926757812e-01
7.600000000000000000e+01 2.690000000000000000e+02 3.655465602874755859e+00 2.559849023818969727e+00 -5.918879508972167969e-01
2.300000000000000000e+02 2.690000000000000000e+02 5.924102783203125000e+00 1.647065043449401855e+00 -9.260538816452026367e-01
1.220000000000000000e+02 2.710000000000000000e+02 4.636963367462158203e+00 2.644223213195800781e+00 -7.043325901031494141e-01
5.070000000000000000e+02 2.760000000000000000e+02 2.959560155868530273e+00 -1.327444076538085938e+00 -5.097232460975646973e-01
4.700000000000000000e+01 2.770000000000000000e+02 3.336810350418090820e+00 2.593658447265625000e+00 -5.920982956886291504e-01
1.630000000000000000e+02 2.770000000000000000e+02 5.023886680603027344e+00 2.361372947692871094e+00 -8.767435550689697266e-01
3.900000000000000000e+01 2.790000000000000000e+02 3.173033475875854492e+00 2.585761547088623047e+00 -5.679975748062133789e-01
4.330000000000000000e+02 2.810000000000000000e+02 5.211120605468750000e+00 -1.311228036880493164e+00 -9.526090025901794434e-01
3.440000000000000000e+02 2.820000000000000000e+02 5.575079917907714844e+00 -8.171078562736511230e-02 -9.446805119514465332e-01
4.880000000000000000e+02 2.910000000000000000e+02 4.063199043273925781e+00 -1.606332421302795410e+00 -8.450168967247009277e-01
5.020000000000000000e+02 2.940000000000000000e+02 3.906630516052246094e+00 -1.684121727943420410e+00 -8.570461273193359375e-01
4.240000000000000000e+02 2.980000000000000000e+02 4.050867080688476562e+00 -9.347415566444396973e-01 -9.119434952735900879e-01
5.250000000000000000e+02 3.020000000000000000e+02 3.597481966018676758e+00 -1.759269595146179199e+00 -8.093222379684448242e-01
3.840000000000000000e+02 3.030000000000000000e+02 4.009106636047363281e+00 -5.154336094856262207e-01 -9.283206462860107422e-01
4.640000000000000000e+02 3.100000000000000000e+02 3.114476919174194336e+00 -1.069838166236877441e+00 -7.983089089393615723e-01
5.000000000000000000e+02 3.160000000000000000e+02 3.680934667587280273e+00 -1.592639684677124023e+00 -9.560974240303039551e-01
5.250000000000000000e+02 3.160000000000000000e+02 3.584755182266235352e+00 -1.759907603263854980e+00 -9.289680719375610352e-01